948
-1.072822 0.205019 -0.000624 -228
-1.074431 0.339570 0.000792 464
-1.056373 0.216453 -0.000348 -39
-1.042398 0.232953 -0.000905 267
-1.045967 0.227294 0.001024 -513
-1.061379 0.211586 0.000636 -646
-1.042161 0.232241 0.000717 -993
-1.059128 0.214835 -0.000344 784
-1.038201 0.240523 -0.000278 206
-1.037208 0.241500 0.001704 -1145
-1.053703 0.218100 -0.000185 -518
-1.042732 0.232191 -0.000142 -181
-1.060302 0.212361 0.000199 -338
-1.071573 0.205082 0.000746 -945
-1.039225 0.237194 0.000237 -644
-1.036629 0.243059 0.000341 -403
-1.038398 0.238873 0.000214 -550
-1.037068 0.242147 -0.000584 96
-1.041782 0.234695 -0.000186 414
-1.054717 0.217276 0.000080 -480
-1.062505 0.210802 0.001052 -824
-1.069682 0.205881 0.000664 -972
-1.036310 0.243850 -0.000434 -22
-1.072481 0.205962 0.000697 279
-1.059240 0.214001 -0.000112 377
-1.066455 0.208267 -0.000434 31
-1.043898 0.232237 0.000192 833
-1.052866 0.219784 0.000023 85
-1.041107 0.233873 0.000384 -853
-1.046214 0.225468 -0.000576 -910
-1.038234 0.239663 -0.000209 -147
-1.074951 0.203427 0.000042 -418
-1.070662 0.206755 0.000793 389
-1.065690 0.209969 -0.000039 389
-1.071615 0.205964 0.000863 -81
-1.048229 0.224734 -0.000116 -154
-1.075692 0.339700 0.001484 102
-1.055587 0.217280 -0.000293 102
-1.043922 0.231416 0.000259 515
-1.035140 0.297565 0.001242 -435
-1.045145 0.316765 0.001107 -947
-1.059552 0.331071 0.000409 -605
-1.056707 0.329198 0.000204 -484
-1.066566 0.209967 -0.000209 989
-1.042006 0.313109 0.000187 -850
-1.057737 0.328425 0.000494 603
-1.037518 0.303541 0.000352 -413
-1.049359 0.223087 0.000386 -603
-1.038507 0.238055 0.000455 -973
-1.034607 0.248059 0.000068 -557
-1.036464 0.245584 -0.000047 517
-1.033422 0.290694 0.001530 -346
-1.030654 0.265685 -0.000735 -431
-1.045006 0.228094 0.000733 -792
-1.044776 0.314934 0.000246 34
-1.070763 0.337654 0.000759 344
-1.059430 0.212355 0.000365 -943
-1.030116 0.270838 0.000176 -928
-1.052854 0.324917 0.001996 -676
-1.033878 0.291438 0.000212 365
-1.038176 0.241342 -0.000348 500
-1.053799 0.219817 0.000038 530
-1.050061 0.321121 -0.000287 541
-1.032170 0.280310 0.000549 516
-1.037019 0.301889 0.001179 -558
-1.054998 0.327442 0.000541 -508
-1.058459 0.214001 0.000222 -924
-1.051518 0.323862 0.000824 -750
-1.072503 0.205110 0.000758 -587
-1.041523 0.311503 0.001219 -725
-1.039141 0.238018 -0.000015 -155
-1.037655 0.240580 0.000776 -631
-1.069643 0.207560 0.000541 611
-1.034195 0.251369 -0.000925 498
-1.074972 0.205138 0.000100 932
-1.062053 0.331368 0.002016 574
-1.073916 0.204252 -0.000201 -736
-1.036437 0.299388 0.001936 -586
-1.174197 0.240204 -0.000254 -735
-1.152287 0.213528 -0.000398 -317
-1.096903 0.198072 -0.000602 -301
-1.092319 0.197946 -0.000444 -536
-1.160082 0.219832 0.000051 -693
-1.114567 0.197733 -0.000725 -693
-1.032528 0.284657 0.001358 -18
-1.086820 0.200366 -0.000305 353
-1.065428 0.335735 0.001231 -604
-1.175927 0.248923 -0.000455 524
-1.158184 0.218068 0.000041 -546
-1.045476 0.228886 -0.000161 438
-1.181036 0.276962 0.000071 -621
-1.172374 0.303519 -0.000197 761
-1.106551 0.197537 0.000166 -372
-1.180625 0.273391 -0.000821 -549
-1.112408 0.196909 0.000733 -1049
-1.177756 0.254206 -0.000590 141
-1.178999 0.282937 -0.000271 587
-1.172374 0.305261 -0.000200 338
-1.141041 0.336738 -0.000440 303
-1.042791 0.313116 -0.000145 -35
-1.121975 0.199650 -0.000873 -35
-1.179013 0.283835 -0.000167 508
-1.174120 0.302720 -0.000292 -626
-1.030994 0.264083 0.000125 -527
-1.161858 0.222492 -0.000175 -527
-1.178619 0.254202 -0.001001 -673
-1.031825 0.260678 -0.000276 18
-1.177381 0.251522 -0.001410 -577
-1.137274 0.204457 -0.000267 -237
-1.078397 0.202634 -0.000559 87
-1.061150 0.212387 0.000041 92
-1.033011 0.288017 0.000559 92
-1.178808 0.257719 -0.000606 -17
-1.172389 0.306142 -0.000104 -17
-1.098950 0.197304 -0.000194 -1023
-1.057580 0.214836 0.000317 -714
-1.109978 0.346630 0.001349 -267
-1.056189 0.328426 0.001156 -489
-1.089657 0.345602 0.001690 -489
-1.064522 0.334853 0.001322 -350
-1.042919 0.231388 0.000269 -694
-1.178685 0.289838 -0.000920 -572
-1.113831 0.198584 -0.000252 401
-1.087933 0.344454 -0.000123 -19
-1.172913 0.240995 -0.000781 392
-1.083242 0.342453 -0.000304 766
-1.103308 0.196537 -0.000818 -1045
-1.085051 0.344536 0.001763 -1045
-1.165243 0.226855 -0.001108 -402
-1.156802 0.217060 -0.000914 -486
-1.059408 0.213209 0.000301 -238
-1.060442 0.330247 0.000347 668
-1.149439 0.212563 -0.000465 668
-1.052622 0.323988 0.001382 -42
-1.055839 0.327445 0.000390 175
-1.035727 0.296641 0.000275 493
-1.060114 0.213177 -0.000208 356
-1.030812 0.269123 -0.000341 -152
-1.140119 0.205392 -0.000181 -264
-1.032378 0.279527 0.000966 571
-1.166410 0.229504 -0.000633 171
-1.085831 0.200312 -0.000493 171
-1.175811 0.245440 -0.000687 -500
-1.168716 0.312965 0.000143 -500
-1.081893 0.201866 -0.000981 204
-1.081914 0.201010 -0.000921 204
-1.156347 0.217125 0.000139 204
-1.040396 0.307950 0.000679 251
-1.167417 0.313725 -0.000401 -183
-1.153768 0.214500 0.000728 -343
-1.172610 0.307064 0.000315 -453
-1.139861 0.206214 -0.000762 394
-1.173918 0.300082 -0.000724 394
-1.064823 0.210801 0.000055 525
-1.088210 0.200458 0.000747 525
-1.052428 0.323090 0.000955 483
-1.033650 0.289657 -0.000316 528
-1.031558 0.288648 -0.000986 -834
-1.044591 0.315129 0.001967 -759
-1.160188 0.322995 0.000111 -116
-1.147259 0.334584 0.000787 -116
-1.103836 0.197322 -0.001745 -212
-1.093970 0.197942 -0.000965 -376
-1.075933 0.340652 0.002087 -659
-1.163517 0.224227 -0.000689 -917
-1.160592 0.220649 -0.000895 -804
-1.086925 0.199511 -0.000074 -506
-1.173904 0.304623 0.001277 -506
-1.155814 0.326968 -0.001119 -705
-1.161740 0.221597 -0.000462 -1002
-1.135450 0.340818 -0.000329 -504
-1.072291 0.339376 0.000070 -398
-1.051622 0.221526 0.001228 -474
-1.077212 0.341440 0.000792 -674
-1.040164 0.308969 0.002317 -1033
-1.100216 0.196540 0.000559 -1033
-1.031461 0.276955 0.001222 -135
-1.159333 0.218978 0.000478 -667
-1.049133 0.321060 -0.000302 36
-1.030545 0.276928 0.001193 -1007
-1.063372 0.209978 0.000958 -1026
-1.167593 0.312018 -0.000055 661
-1.030621 0.278638 0.001384 -1123
-1.143040 0.207215 0.000003 -170
-1.119340 0.346013 -0.000676 -863
-1.173908 0.306355 0.001273 -1148
-1.083855 0.201072 -0.000731 637
-1.080492 0.341474 -0.000225 637
-1.140355 0.339375 0.000152 -1421
-1.049371 0.224797 0.000434 487
-1.117417 0.198678 -0.000620 487
-1.179135 0.289068 0.000017 -415
-1.032631 0.253904 -0.000322 -541
-1.069343 0.337703 0.001786 -695
-1.141150 0.205447 -0.000030 -695
-1.180678 0.277756 -0.000697 -695
-1.101166 0.346918 0.000404 -773
-1.153856 0.328607 -0.001270 -206
-1.044029 0.229736 0.000578 -445
-1.172755 0.239369 0.000724 130
-1.151484 0.329467 -0.000278 687
-1.137294 0.203569 -0.000203 -951
-1.174120 0.300982 -0.000291 114
-1.149166 0.210789 -0.001031 -515
-1.160806 0.322938 -0.000595 -754
-1.073622 0.340427 0.001026 -747
-1.066713 0.207460 0.000148 -747
-1.179368 0.286360 -0.001266 -747
-1.036879 0.300142 0.000826 22
-1.088366 0.198652 -0.001056 -1106
-1.080214 0.201003 -0.000593 -1106
-1.038715 0.307068 0.001080 -1173
-1.035404 0.247207 -0.000388 244
-1.155009 0.217024 -0.000706 244
-1.138381 0.340102 -0.000098 -859
-1.081918 0.201169 0.001153 -915
-1.095424 0.197944 -0.001819 -191
-1.098338 0.347633 0.000298 -1037
-1.178285 0.292539 0.000439 -380
-1.126396 0.343894 0.000427 -344
-1.129341 0.343213 0.000658 -323
-1.132912 0.341619 0.000302 -362
-1.112781 0.197684 -0.000546 -311
-1.032118 0.287126 0.000413 -423
-1.095735 0.346682 0.000745 -760
-1.031086 0.282819 0.000300 -706
-1.091844 0.345576 0.000309 -582
-1.041967 0.312230 0.000106 -371
-1.106824 0.347230 0.000572 -305
-1.065806 0.209140 0.000189 -329
-1.097609 0.346778 0.000743 -340
-1.071552 0.338534 0.000507 4
-1.039168 0.238875 0.000098 248
-1.068401 0.207496 -0.000167 228
-1.046292 0.227201 -0.000352 228
-1.162091 0.320467 0.000182 228
-1.177877 0.255112 -0.000316 361
-1.179242 0.274164 -0.001521 361
-1.035995 0.297565 0.000885 172
-1.166149 0.315340 -0.001069 -396
-1.080357 0.201872 -0.000310 -270
-1.160629 0.221532 -0.000781 -247
-1.087526 0.344579 0.001089 -247
-1.047791 0.319441 0.000894 -368
-1.177271 0.252341 -0.001653 -368
-1.041403 0.310607 0.000965 -265
-1.179748 0.277754 -0.000465 239
-1.047249 0.224667 -0.000317 -775
-1.053075 0.325626 0.000347 -653
-1.173906 0.241023 -0.000831 -407
-1.171668 0.308806 0.000545 -509
-1.128462 0.201531 -0.001037 345
-1.091987 0.198736 -0.001197 345
-1.038568 0.303627 0.000734 470
-1.121306 0.198794 -0.000290 -517
-1.105651 0.196654 0.000220 -1103
-1.031345 0.285448 0.000929 -1117
-1.045937 0.316764 0.000771 -195
-1.097835 0.198096 -0.000599 -195
-1.170367 0.309514 -0.000203 -195
-1.031930 0.259838 -0.000023 -129
-1.090696 0.346556 0.001939 -1035
-1.093346 0.346409 -0.000471 -1044
-1.175661 0.244557 -0.000952 -793
-1.165714 0.317143 -0.000245 -793
-1.155267 0.328781 -0.000256 -793
-1.030566 0.268430 0.001289 -1058
-1.180586 0.266431 -0.000893 -677
-1.181036 0.269146 0.000084 -516
-1.058253 0.330303 0.001695 -520
-1.103504 0.347159 0.001433 -520
-1.125542 0.199732 -0.001241 -374
-1.169701 0.312160 0.000417 -776
-1.040206 0.235552 0.000396 -701
-1.046120 0.317689 0.001202 -701
-1.046168 0.226321 -0.000634 -339
-1.105817 0.176163 0.000644 62
-1.090346 0.199569 -0.000748 62
-1.158226 0.218914 0.000157 62
-1.179816 0.279491 -0.000268 103
-1.129858 0.343125 -0.000201 -462
-1.166297 0.227758 -0.000842 -680
-1.042070 0.233076 0.000469 -530
-1.033468 0.291546 0.001618 -530
-1.180927 0.268260 -0.000191 -530
-1.031391 0.278637 0.001063 -225
-1.172786 0.238516 0.000792 -225
-1.178903 0.286396 -0.000410 119
-1.166518 0.314551 -0.000294 119
-1.064953 0.209114 0.000351 -816
-1.034075 0.249803 0.000739 -816
-1.086056 0.344609 0.001941 -755
-1.147873 0.334529 0.000085 -595
-1.168893 0.232147 -0.001207 -596
-1.095915 0.197185 -0.000720 -1062
-1.178912 0.255845 -0.002159 -1062
-1.134280 0.202616 -0.000634 -400
-1.088549 0.199544 -0.000581 -282
-1.159316 0.219837 0.000410 -74
-1.138025 0.205305 -0.000683 10
-1.176472 0.299457 0.000688 -854
-1.102855 0.196589 0.000217 -1094
-1.070536 0.205899 0.000502 -470
-1.178917 0.287122 -0.002202 -889
-1.124682 0.199710 -0.001058 -125
-1.032391 0.259110 0.001107 -269
-1.179512 0.257719 -0.000942 -845
-1.142644 0.337848 0.000997 -845
-1.154129 0.329569 -0.000677 -845
-1.118339 0.346169 0.001233 -685
-1.167856 0.230360 -0.001608 -699
-1.126401 0.199729 -0.001423 -699
-1.160146 0.323850 0.000019 -699
-1.033327 0.289798 0.001259 -205
-1.063053 0.210746 0.000196 -298
-1.077604 0.202635 -0.000214 -298
-1.044263 0.314177 0.001184 -256
-1.172733 0.239219 -0.001158 -256
-1.064068 0.209939 0.000454 -563
-1.040946 0.234692 -0.000041 -377
-1.151379 0.332263 0.001516 -639
-1.141731 0.206274 -0.000787 -416
-1.115419 0.346868 0.000977 -416
-1.068279 0.206604 -0.000457 -568
-1.031039 0.281933 0.000213 -568
-1.180704 0.275160 -0.000631 -559
-1.154868 0.216156 -0.000986 -390
-1.175177 0.300199 -0.000062 -390
-1.050244 0.322042 0.000142 133
-1.062867 0.211558 -0.000209 382
-1.039415 0.305341 0.000583 382
-1.167157 0.230389 -0.000856 -12
-1.035525 0.246380 -0.000148 -2
-1.032663 0.254757 -0.000216 -325
-1.179063 0.281936 -0.001886 -171
-1.031208 0.273498 0.000675 -120
-1.099882 0.197331 -0.000192 -120
-1.179871 0.280384 -0.000183 20
-1.176831 0.251546 -0.000725 218
-1.162647 0.225080 -0.000569 261
-1.037247 0.241341 -0.000166 -252
-1.159206 0.220685 0.000175 478
-1.115596 0.196905 -0.000495 -817
-1.055609 0.216458 -0.000229 -543
-1.175954 0.249810 -0.000344 654
-1.155318 0.327923 -0.000165 -173
-1.144819 0.208131 -0.000264 -485
-1.128649 0.200717 -0.000635 -485
-1.132433 0.201709 -0.000555 -472
-1.086379 0.344451 0.000562 -472
-1.076540 0.202602 -0.000582 -613
-1.162476 0.320371 -0.001046 -455
-1.049560 0.222136 -0.001277 -561
-1.035276 0.244625 -0.000700 -561
-1.135794 0.203446 -0.001398 -561
-1.039806 0.236305 -0.000546 -266
-1.069575 0.206706 0.000434 -161
-1.101124 0.197262 -0.001578 -161
-1.141625 0.207108 -0.001019 263
-1.144944 0.209012 0.000025 278
-1.167548 0.312871 -0.000142 278
-1.115933 0.345914 0.000035 278
-1.156688 0.217924 -0.001148 90
-1.064105 0.210821 0.000571 163
-1.038604 0.304487 0.000820 163
-1.144863 0.335210 -0.000305 163
-1.152610 0.330451 0.000125 -357
-1.172752 0.237639 0.000681 -570
-1.049479 0.223972 0.000671 1
-1.031284 0.262442 0.000802 -658
-1.167549 0.314629 -0.000154 -658
-1.046960 0.226320 -0.000970 268
-1.129909 0.342279 -0.000106 364
-1.138618 0.205272 -0.001374 -429
-1.130392 0.201613 -0.000875 -519
-1.064842 0.209946 0.000120 -69
-1.033119 0.288897 0.000827 -69
-1.155710 0.326069 -0.001377 -69
-1.090837 0.345499 0.000132 -69
-1.037562 0.302685 0.000438 -45
-1.140255 0.338472 -0.000102 -45
-1.140311 0.337610 -0.000010 -45
-1.116618 0.198678 -0.000259 672
-1.066441 0.209110 -0.000498 663
-1.077670 0.203522 -0.000107 546
-1.171075 0.306020 -0.000740 683
-1.151636 0.212673 0.000190 -363
-1.034100 0.293198 0.000742 -47
-1.175055 0.244584 -0.000242 -47
-1.084828 0.200270 -0.000676 9
-1.163337 0.318661 -0.001231 8
-1.052117 0.221490 0.000397 667
-1.032154 0.281169 0.000457 441
-1.178307 0.260217 -0.001691 441
-1.177325 0.292504 0.000264 441
-1.076298 0.339672 0.000804 441
-1.033773 0.290554 -0.000056 453
-1.034897 0.294083 0.000720 453
-1.177783 0.288956 -0.000600 453
-1.167133 0.231244 -0.000926 407
-1.126212 0.342956 0.000007 462
-1.080313 0.202721 -0.000360 577
-1.030498 0.276041 0.001103 -953
-1.125193 0.344622 -0.000183 -953
-1.040533 0.309732 0.001024 -620
-1.051312 0.222316 0.000457 153
-1.031789 0.261533 -0.000350 153
-1.047482 0.318483 0.000106 123
-1.178391 0.259362 -0.001428 265
-1.048269 0.225586 -0.000002 357
-1.121115 0.199620 -0.000690 357
-1.179427 0.273328 -0.001093 357
-1.157128 0.324522 -0.000352 562
-1.121457 0.344427 -0.000147 562
-1.178200 0.290784 0.000263 121
-1.127308 0.343059 0.000339 312
-1.145563 0.335214 -0.000630 -318
-1.108423 0.346388 -0.000027 -318
-1.032385 0.265067 0.001101 325
-1.114067 0.345818 0.000046 484
-1.173701 0.242702 -0.001321 215
-1.097412 0.345843 0.000330 477
-1.035034 0.294972 0.000973 285
-1.175953 0.248070 -0.000381 308
-1.112156 0.197700 0.000153 -202
-1.179613 0.262930 -0.000691 -202
-1.084635 0.343522 0.000826 -202
-1.104347 0.347183 0.001264 -510
-1.049768 0.223027 -0.000821 73
-1.033874 0.253154 0.000274 243
-1.065303 0.334856 0.000985 170
-1.062652 0.332160 0.001233 457
-1.173905 0.243626 -0.000873 457
-1.108386 0.345507 -0.000097 457
-1.057326 0.215633 -0.000266 -13
-1.061945 0.332188 0.001743 -27
-1.112819 0.198535 -0.000422 560
-1.179358 0.275046 -0.001250 399
-1.143272 0.336063 0.000315 319
-1.107240 0.197539 -0.000352 351
-1.129128 0.342270 0.000252 443
-1.057450 0.216517 0.000019 531
-1.037319 0.300917 -0.000077 531
-1.106724 0.346333 0.000321 531
-1.122985 0.199684 -0.000704 -291
-1.060304 0.331070 0.000087 16
-1.104588 0.176085 -0.000058 16
-1.171265 0.236655 -0.000215 -62
-1.049400 0.322016 0.000295 -496
-1.133487 0.203471 -0.000341 643
-1.170030 0.235688 -0.001021 305
-1.072198 0.338473 -0.000185 362
-1.124806 0.342790 -0.001019 585
-1.031858 0.267475 -0.000185 523
-1.108017 0.345633 0.001104 448
-1.107969 0.346486 0.001006 448
-1.153817 0.327742 -0.001350 363
-1.042111 0.310577 0.000463 474
-1.155007 0.326100 -0.000839 757
-1.032473 0.278700 0.001228 629
-1.150347 0.213434 -0.000541 684
-1.056777 0.327502 0.000400 698
-1.099681 0.198155 -0.000587 714
-1.030565 0.271604 -0.000926 -99
-1.162632 0.223346 -0.000616 -697
-1.180322 0.272470 -0.001425 -491
-1.167422 0.229585 -0.000272 -478
-1.180483 0.262934 -0.001106 -1015
-1.110838 0.196768 -0.000647 -921
-1.158490 0.325557 0.000571 -687
-1.079040 0.342360 0.000707 -687
-1.032116 0.266713 0.000413 430
-1.053209 0.324800 0.000609 -43
-1.075732 0.203426 -0.000298 -28
-1.143611 0.208899 -0.000824 669
-1.094872 0.198828 -0.001017 669
-1.177135 0.291557 -0.000171 669
-1.170413 0.310416 -0.000125 -665
-1.056193 0.215565 -0.000817 -690
-1.103203 0.197359 -0.001046 -188
-1.074929 0.204283 -0.000019 424
-1.053682 0.218925 -0.000249 60
-1.148954 0.333768 0.000533 -1019
-1.173631 0.303670 0.000673 -169
-1.073899 0.205081 -0.000263 122
-1.044363 0.229629 -0.000800 225
-1.158454 0.324671 0.000493 -36
-1.164512 0.317018 -0.000724 -36
-1.159150 0.324648 -0.000043 -594
-1.132009 0.342439 0.000390 -123
-1.171145 0.237482 -0.000450 293
-1.138920 0.206189 -0.000748 293
-1.051693 0.220555 -0.000587 161
-1.030744 0.270799 -0.000497 -65
-1.088232 0.199608 0.000807 -303
-1.047447 0.317620 0.000023 529
-1.169600 0.309540 0.000157 529
-1.062411 0.333799 0.000698 -843
-1.137003 0.339078 -0.001015 207
-1.042970 0.314007 0.000292 -575
-1.180282 0.282882 -0.001514 -1086
-1.151023 0.331306 0.000751 111
-1.178870 0.255980 -0.000455 -259
-1.061840 0.333016 0.001467 -738
-1.048805 0.321216 0.001068 -647
-1.147693 0.333606 -0.000342 125
-1.130997 0.342377 0.000228 125
-1.045813 0.315884 0.000520 253
-1.119131 0.175693 0.001185 -168
-1.053007 0.323865 0.000190 461
-1.148870 0.210874 0.000366 75
-1.141044 0.206277 -0.000260 25
-1.069745 0.337588 0.000581 -78
-1.180415 0.264669 -0.001259 -885
-1.167785 0.228796 0.000477 -914
-1.160848 0.322090 -0.000505 -187
-1.116934 0.345973 0.000206 -551
-1.084027 0.343579 0.001505 -551
-1.145072 0.336153 0.000105 -634
-1.112436 0.347509 0.000544 -1121
-1.178467 0.290666 -0.001339 -742
-1.032124 0.282020 0.000374 316
-1.179793 0.278638 -0.000373 159
-1.099664 0.345808 -0.000877 115
-1.178160 0.291666 0.000177 -124
-1.168869 0.233031 -0.001278 -177
-1.089882 0.199634 0.000287 -181
-1.050424 0.322935 0.000575 -383
-1.093059 0.345696 0.001015 -383
-1.046980 0.225475 -0.000901 -217
-1.067918 0.336663 0.000658 -544
-1.048179 0.223846 -0.000221 -751
-1.180648 0.278638 -0.000782 -751
-1.180474 0.270762 -0.001097 -499
-1.031362 0.277782 0.000963 -153
-1.067560 0.207466 -0.000009 -214
-1.036916 0.301002 0.000914 -214
-1.163405 0.225084 -0.000926 -459
-1.143141 0.336906 0.000050 -459
-1.046547 0.318418 0.000093 -494
-1.045043 0.315888 0.000845 -451
-1.140911 0.337564 -0.000704 -451
-1.038902 0.306275 0.001516 -772
-1.037867 0.305342 0.001232 -1167
-1.164722 0.317963 -0.000307 -615
-1.030433 0.271785 0.000978 -955
-1.174900 0.241938 -0.000544 -918
-1.116368 0.346896 0.000966 -1331
-1.103239 0.346206 0.000843 284
-1.151531 0.213528 -0.000046 279
-1.076578 0.203452 -0.000459 279
-1.167996 0.311033 -0.001396 371
-1.179403 0.268120 -0.001148 398
-1.126616 0.200646 -0.000964 178
-1.118338 0.198680 -0.000616 282
-1.089466 0.344702 0.001269 322
-1.149610 0.331106 -0.000261 522
-1.154549 0.217097 0.000348 566
-1.153399 0.216156 -0.000089 589
-1.162723 0.318685 -0.000521 507
-1.032914 0.287125 0.000288 273
-1.124152 0.199761 -0.000191 290
-1.039862 0.237168 -0.000445 162
-1.054843 0.218161 0.000364 142
-1.031724 0.263211 -0.000501 266
-1.160207 0.220747 0.000334 -96
-1.059574 0.330216 0.000514 149
-1.034467 0.249736 -0.000250 77
-1.176396 0.250596 -0.001695 77
-1.119032 0.198678 -0.001140 -9
-1.032160 0.286271 0.000494 -258
-1.174245 0.301904 -0.000039 -258
-1.111220 0.346532 -0.000038 -258
-1.174930 0.243702 -0.000520 -355
-1.136750 0.340103 0.000441 -88
-1.169911 0.234775 -0.001301 -118
-1.051784 0.323089 0.001439 -148
-1.135344 0.203515 -0.000355 -148
-1.067265 0.335819 0.001264 -284
-1.071006 0.338613 0.001360 -488
-1.138633 0.339104 -0.001558 -529
-1.051348 0.219632 -0.001398 -495
-1.174631 0.301779 -0.001269 -986
-1.144801 0.337150 0.001577 -919
-1.038862 0.305417 0.001431 -278
-1.162076 0.321318 0.000080 -278
-1.165816 0.316286 0.000029 -278
-1.092811 0.197881 -0.001493 -430
-1.137042 0.339962 -0.000943 -545
-1.081078 0.343384 0.001143 -758
-1.127638 0.199825 -0.000733 -1025
-1.031008 0.259821 0.000156 -1079
-1.031888 0.289601 -0.000196 -999
-1.030693 0.272717 0.001598 -962
-1.178634 0.295247 0.001227 -1059
-1.177837 0.297845 0.001295 -1059
-1.171396 0.307852 -0.000057 -77
-1.032174 0.255658 0.000519 -1052
-1.123001 0.344422 -0.000848 200
-1.129838 0.202502 -0.000063 625
-1.118072 0.345215 0.000643 190
-1.105404 0.197476 -0.000364 -232
-1.179716 0.264699 -0.000504 -39
-1.123865 0.198855 -0.000828 -1255
-1.175217 0.299342 0.000024 -71
-1.037042 0.298472 0.001169 503
-1.177208 0.246424 0.000035 -1016
-1.030953 0.284469 -0.000042 -991
-1.030311 0.269215 0.000688 -980
-1.168994 0.233912 -0.000997 205
-1.180698 0.279491 -0.000689 -795
-1.036246 0.298473 0.001502 -234
-1.153278 0.329551 -0.000489 -234
-1.033664 0.254808 -0.000223 579
-1.149961 0.332091 0.000503 -117
-1.169052 0.234775 -0.000895 536
-1.176796 0.248075 -0.000783 -550
-1.179767 0.265587 -0.000410 58
-1.057842 0.329322 0.000748 113
-1.115343 0.197733 -0.001076 113
-1.041059 0.235548 0.000245 93
-1.091228 0.198745 -0.000862 93
-1.031096 0.261546 0.000353 -779
-1.095565 0.345739 0.000322 136
-1.037429 0.301820 0.000184 292
-1.032627 0.258162 -0.000346 304
-1.177282 0.293357 0.000183 192
-1.058949 0.330276 0.001193 214
-1.178476 0.261972 -0.001320 556
-1.104771 0.346217 0.000157 556
-1.119885 0.198679 -0.001317 -241
-1.164559 0.225997 -0.000495 -143
-1.041903 0.233872 0.000048 -38
-1.178847 0.256861 -0.000536 -111
-1.147284 0.210720 -0.000994 -66
-1.142219 0.336851 0.000059 -66
-1.079149 0.341547 0.000981 98
-1.153576 0.215319 0.000324 220
-1.138594 0.338226 -0.001631 220
-1.091715 0.344677 0.000070 220
-1.054009 0.325672 0.000361 5
-1.073513 0.339531 0.000777 53
-1.175986 0.247214 -0.000311 53
-1.162522 0.319517 -0.000958 53
-1.109891 0.197589 -0.000706 145
-1.064638 0.334025 0.001593 339
-1.172325 0.304404 -0.000284 583
-1.168275 0.232180 -0.000706 208
-1.130374 0.202468 -0.000937 324
-1.122689 0.344571 0.000541 464
-1.081747 0.342498 0.000554 464
-1.056724 0.217371 0.000463 450
-1.138150 0.206189 -0.000393 593
-1.032147 0.256513 0.000442 -881
-1.035463 0.245529 -0.000245 -255
-1.178899 0.283622 -0.002214 -387
-1.178585 0.255047 -0.001072 -460
-1.031047 0.280256 0.000192 -397
-1.102687 0.197420 -0.000193 -213
-1.111910 0.346499 -0.000554 -213
-1.110613 0.346573 0.000650 -233
-1.178852 0.282737 -0.002302 -279
-1.113242 0.346672 0.000298 -279
-1.031354 0.279492 0.000982 -322
-1.104981 0.347142 0.000565 -322
-1.069011 0.336761 0.001010 99
-1.169555 0.310387 0.000072 117
-1.062161 0.211590 0.000300 -93
-1.176423 0.249715 -0.001618 -93
-1.039313 0.306166 0.000316 66
-1.032620 0.283862 0.001619 85
-1.094472 0.345671 -0.000026 85
-1.127876 0.343870 -0.000455 -780
-1.179315 0.288263 0.000451 -276
-1.145467 0.208964 -0.000846 -287
-1.116811 0.345088 -0.000035 323
-1.033702 0.253950 -0.000152 435
-1.178918 0.284682 -0.000433 422
-1.032449 0.282951 0.001171 186
-1.056718 0.328357 0.000312 184
-1.100902 0.345965 -0.000187 116
-1.054249 0.326593 0.000973 -598
-1.058991 0.331132 0.001268 -482
-1.063190 0.333822 0.000360 -240
-1.086334 0.343581 0.000492 369
-1.179715 0.270789 -0.000525 385
-1.115156 0.345914 0.000385 405
-1.179607 0.276841 -0.000720 335
-1.100441 0.196442 -0.000998 -992
-1.180404 0.282061 -0.001266 -992
-1.034817 0.246408 0.000561 -1155
-1.077032 0.340500 0.000371 109
-1.033764 0.293345 0.002322 -995
-1.067448 0.336758 0.001686 -995
-1.120901 0.346253 0.000906 -995
-1.042091 0.311433 0.000363 78
-1.179644 0.275996 -0.000643 403
-1.037039 0.242994 -0.000655 426
-1.155189 0.327031 -0.000411 377
-1.171260 0.306953 -0.000306 334
-1.159105 0.323775 -0.000119 50
-1.044005 0.230588 0.000509 70
-1.163384 0.225935 -0.000994 70
-1.040967 0.236379 -0.000003 466
-1.087490 0.343697 0.001018 463
-1.031762 0.262352 -0.000426 234
-1.041389 0.309725 0.000873 234
-1.150282 0.212582 -0.000648 234
-1.174947 0.298390 -0.000583 246
-1.160868 0.321240 -0.000403 355
-1.044542 0.228834 -0.000386 -271
-1.124847 0.343639 -0.000944 -103
-1.042835 0.312260 -0.000055 414
-1.179555 0.285534 -0.000834 -606
-1.179510 0.269855 -0.000963 393
-1.168209 0.311961 -0.000976 -46
-1.034457 0.250571 -0.000329 298
-1.054816 0.326519 0.000114 97
-1.099614 0.346919 0.001094 0
-1.168124 0.231296 -0.000975 -230
-1.046651 0.317621 0.000360 46
-1.031293 0.275223 0.000863 -37
-1.175721 0.296650 -0.000954 -37
-1.076710 0.340656 0.001748 -272
-1.176685 0.248922 -0.001027 -308
-1.179813 0.272545 -0.000340 375
-1.152042 0.214312 -0.000984 286
-1.032386 0.265922 0.001009 360
-1.165861 0.315429 0.000117 235
-1.136089 0.204358 -0.000766 177
-1.034853 0.295758 0.000539 76
-1.178600 0.258528 -0.001016 86
-1.081501 0.201926 0.000229 -29
-1.034143 0.294051 0.000832 -283
-1.133627 0.341583 -0.000232 -636
-1.127706 0.200681 -0.000623 -199
-1.084051 0.200267 -0.000335 -199
-1.171229 0.235774 -0.000326 -477
-1.030591 0.267362 -0.000889 -320
-1.131123 0.343280 0.000469 -700
-1.165041 0.227663 -0.001510 55
-1.083018 0.343495 0.001329 -851
-1.090425 0.198741 -0.000508 -836
-1.106530 0.198389 0.000107 518
-1.175738 0.295794 -0.000860 222
-1.172767 0.240100 -0.001048 84
-1.160151 0.322110 0.000031 395
-1.032978 0.256549 0.000506 -34
-1.151652 0.331247 0.000041 -450
-1.031256 0.263296 0.000723 -585
-1.146827 0.209049 -0.000008 -861
-1.078723 0.342504 0.002083 -1053
-1.118986 0.197823 -0.001261 -892
-1.174904 0.300981 -0.000664 -689
-1.157209 0.326297 -0.000199 -689
-1.174877 0.242824 -0.000620 -650
-1.032790 0.255628 0.000057 -162
-1.052677 0.218875 -0.000440 -560
-1.037203 0.302813 0.001614 -942
-1.153469 0.330449 -0.000063 -888
-1.147009 0.209820 -0.001633 -767
-1.176198 0.298513 0.000082 -578
-1.150063 0.332991 0.000759 -846
-1.164535 0.226881 -0.000565 315
-1.077872 0.201833 0.000361 -1118
-1.034493 0.248885 -0.000175 -220
-1.030613 0.268218 -0.000784 -229
-1.124664 0.200564 -0.001119 615
-1.114182 0.346724 0.000289 -346
-1.041257 0.308845 0.000622 674
-1.108877 0.197536 -0.000876 276
-1.110821 0.197620 -0.000707 -55
-1.048499 0.319410 0.000390 423
-1.080745 0.342426 0.000372 39
-1.032820 0.252242 0.000185 -979
-1.032076 0.264150 0.000290 294
-1.030606 0.273545 0.001336 -934
-1.111402 0.347449 0.000384 -1133
-1.172797 0.307996 0.000747 -862
-1.081733 0.200119 -0.001395 -1359
-1.048768 0.320333 0.000990 -81
-1.173647 0.241849 -0.001424 -81
-1.100565 0.197297 -0.000703 -81
-1.120632 0.345311 0.000315 -81
-1.030350 0.274322 0.000733 -900
-1.085158 0.199490 0.000078 -874
-1.060347 0.331919 0.000165 -730
-1.131235 0.202469 -0.001120 -75
-1.179514 0.281173 -0.000952 -75
-1.146771 0.209903 -0.000054 -186
-1.109764 0.196705 -0.000998 -781
-1.179853 0.259514 -0.000231 -588
-1.180105 0.263718 -0.001858 -959
-1.032425 0.258287 0.001179 -454
-1.176975 0.252437 -0.000461 379
-1.143339 0.207127 -0.001392 -733
-1.177994 0.293348 -0.000155 -630
-1.110474 0.347385 0.000388 -1110
-1.096785 0.197174 -0.000896 -1122
-1.031578 0.276143 0.001473 -94
-1.177768 0.249873 -0.000578 -901
-1.165679 0.314512 -0.000317 650
-1.034288 0.295799 0.001186 -794
-1.123937 0.344494 -0.000861 -26
-1.123981 0.343645 -0.000762 -26
-1.036999 0.299327 0.001084 221
-1.165105 0.228551 -0.001411 429
-1.079848 0.341534 0.000468 429
-1.172997 0.238428 -0.000571 -612
-1.140795 0.338388 -0.000975 -1183
-1.145754 0.334415 -0.000187 388
-1.033989 0.252342 0.000517 6
-1.160817 0.223276 -0.000391 610
-1.179738 0.266440 -0.000489 185
-1.114463 0.198556 -0.000954 274
-1.152513 0.329538 -0.000131 274
-1.179614 0.267291 -0.000733 314
-1.133348 0.202568 -0.000624 -22
-1.165267 0.225984 -0.001039 -858
-1.039508 0.307067 0.000746 -290
-1.148747 0.332849 0.000118 -290
-1.169679 0.233883 -0.001742 -552
-1.092968 0.344818 0.000759 437
-1.105722 0.346265 0.000147 596
-1.132793 0.202618 0.000258 320
-1.098079 0.346669 -0.000293 -158
-1.104171 0.346266 0.000840 342
-1.031276 0.274336 0.000761 -54
-1.175926 0.246331 -0.000406 -211
-1.090347 0.345572 0.001180 -211
-1.133415 0.340657 -0.000642 203
-1.065039 0.333903 0.000391 712
-1.067538 0.208321 -0.000072 459
-1.125521 0.200566 -0.001298 459
-1.179367 0.268977 -0.001224 417
-1.173026 0.241880 -0.000496 642
-1.134820 0.340858 0.000378 -208
-1.173033 0.302636 -0.000615 179
-1.058354 0.214857 -0.000014 -253
-1.034187 0.294939 0.000915 -540
-1.039897 0.308046 0.001711 -661
-1.169076 0.313937 0.000912 -924
-1.083249 0.201101 -0.000051 455
-1.132784 0.340717 0.000062 455
-1.033935 0.251476 0.000420 -273
-1.179581 0.262071 -0.000796 -273
-1.030742 0.272508 -0.000476 -137
-1.144512 0.336195 0.000994 -137
-1.032201 0.285448 0.000572 -139
-1.040494 0.308846 0.000943 -139
-1.080117 0.342455 0.001062 -304
-1.162753 0.224224 -0.000330 -203
-1.094894 0.197970 -0.000958 -203
-1.115237 0.198555 -0.001303 875
-1.177009 0.294157 -0.000419 -50
-1.045707 0.315002 0.000261 591
-1.169598 0.311274 0.000153 -349
-1.166267 0.228617 -0.000907 -254
-1.116804 0.197828 0.000145 -174
-1.098621 0.198092 -0.000948 -151
-1.177560 0.253293 -0.001039 -109
-1.122954 0.345526 0.001132 -394
-1.166619 0.230421 -0.000182 539
-1.093765 0.198777 -0.001359 539
-1.162009 0.223377 0.000097 -30
-1.062540 0.333003 0.000960 -132
-1.137878 0.204416 -0.000963 -725
-1.181072 0.276113 0.000149 -569
-1.180554 0.267288 -0.000970 -587
-1.154280 0.215320 -0.000216 -435
-1.133176 0.342566 0.000896 -1162
-1.179708 0.258621 -0.000494 -732
-1.036277 0.244681 -0.000503 288
-1.079325 0.202686 -0.000552 288
-1.176967 0.295010 -0.000501 -293
-1.121185 0.345225 -0.000769 -317
-1.127718 0.344070 0.001279 -546
-1.096670 0.346726 0.000745 -538
-1.129935 0.201662 0.000171 -97
-1.149060 0.211612 -0.001262 165
-1.032665 0.253049 -0.000248 -764
-1.088116 0.345360 0.000300 -835
-1.100246 0.346878 0.000398 -787
-1.045799 0.228095 0.000606 21
-1.143548 0.208015 -0.000931 21
-1.030926 0.270011 -0.000071 -89
-1.138189 0.339175 -0.000516 -89
-1.034952 0.296651 0.000806 -159
-1.121618 0.198731 -0.001687 -884
-1.119029 0.346157 0.000923 -855
-1.082442 0.342470 0.000045 656
-1.161706 0.322109 -0.000698 -831
-1.150474 0.211754 -0.000244 -417
-1.083498 0.200310 0.000531 -417
-1.065817 0.335623 0.000032 -160
-1.093305 0.345526 -0.000541 -160
-1.085689 0.199447 -0.000778 -715
-1.108276 0.196731 -0.000123 -555
-1.085564 0.343570 0.000832 129
-1.032787 0.257336 0.000089 118
-1.154256 0.216174 -0.000279 118
-1.093072 0.198779 -0.000844 482
-1.158116 0.219769 -0.000078 578
-1.140271 0.336739 -0.000084 578
-1.036394 0.300239 0.001851 -868
-1.175029 0.245436 -0.000315 256
-1.151695 0.330409 0.000134 256
-1.151570 0.214377 0.000074 737
-1.177256 0.295970 0.000097 -562
-1.119315 0.345115 -0.000750 48
-1.118939 0.345255 0.000667 34
-1.163604 0.319592 -0.000628 -553
-1.117267 0.197797 -0.000901 -378
-1.122957 0.345280 -0.000947 -1357
-1.135240 0.339875 -0.000737 299
-1.175740 0.297536 -0.000858 -301
-1.078447 0.341580 0.001493 -301
-1.180655 0.280377 -0.000769 -847
-1.147522 0.335539 0.001383 -847
-1.034050 0.250630 0.000665 -556
-1.098123 0.345829 -0.000195 588
-1.079644 0.201895 0.000209 -586
-1.034062 0.292330 0.000654 183
-1.067975 0.335803 0.000751 183
-1.160692 0.222398 -0.000676 271
-1.106284 0.176112 -0.000399 146
-1.158434 0.323806 0.000404 541
-1.113142 0.345770 0.000048 587
-1.178329 0.261071 -0.001579 524
-1.163469 0.317808 -0.000971 524
-1.134322 0.203473 -0.000514 358
-1.108170 0.197558 -0.000351 358
-1.153237 0.328665 -0.000565 365
-1.179031 0.287313 -0.000153 -105
-1.127692 0.342955 -0.000878 68
-1.035312 0.248040 -0.000641 515
-1.178061 0.289878 0.000010 329
-1.102145 0.346122 0.000501 212
-1.179618 0.261214 -0.000723 -347
-1.179659 0.263814 -0.000594 -128
-1.157172 0.325416 -0.000278 -18
-1.146905 0.333602 0.000025 471
-1.096576 0.345815 0.000494 344
-1.179842 0.271692 -0.000261 387
-1.170411 0.308662 -0.000117 281
-1.131991 0.341572 0.000307 580
-1.178933 0.285543 -0.000326 310
-1.162078 0.319593 0.000089 574
