948
-1.001334 -2.501008 0.209418 -228
-1.001208 -2.502911 0.343972 464
-1.013105 -2.489494 0.220831 -39
-1.022542 -2.479143 0.237313 267
-1.021402 -2.483046 0.231661 -513
-1.010282 -2.493752 0.215972 -646
-1.023861 -2.480117 0.236603 -993
-1.011169 -2.491457 0.219217 784
-1.025941 -2.476588 0.244879 206
-1.028048 -2.477276 0.245857 -1145
-1.015099 -2.487709 0.222475 -518
-1.022849 -2.479918 0.236553 -181
-1.010729 -2.492678 0.216745 -338
-1.003187 -2.501084 0.209481 -945
-1.025586 -2.477684 0.241552 -644
-1.027487 -2.475903 0.247414 -403
-1.026152 -2.477078 0.243230 -550
-1.026521 -2.475565 0.246501 96
-1.023486 -2.479208 0.239055 414
-1.014574 -2.488617 0.221653 -480
-1.009785 -2.494846 0.215190 -824
-1.004459 -2.499682 0.210277 -972
-1.027161 -2.475129 0.248203 -22
-1.002513 -2.501693 0.210362 279
-1.011255 -2.491702 0.218383 377
-1.005950 -2.496612 0.212658 31
-1.022266 -2.480982 0.236600 833
-1.015836 -2.487257 0.224158 85
-1.024367 -2.479131 0.238233 -853
-1.020091 -2.482099 0.229833 -910
-1.025967 -2.476662 0.244019 -147
-1.000310 -2.502992 0.207829 -418
-1.003861 -2.500467 0.211153 389
-1.006768 -2.496343 0.214359 389
-1.003240 -2.501195 0.210363 -81
-1.019000 -2.483856 0.229103 -154
-1.000813 -2.504293 0.344105 102
-1.013697 -2.488973 0.221657 102
-1.022297 -2.481048 0.235780 515
-1.029175 -2.475383 0.301919 -435
-1.022039 -2.482363 0.321131 -947
-1.011406 -2.492084 0.335454 -605
-1.013262 -2.489922 0.333577 -484
-1.006032 -2.496846 0.214358 989
-1.023594 -2.479492 0.317470 -850
-1.012743 -2.490859 0.332806 603
-1.026869 -2.476436 0.307897 -413
-1.018562 -2.485015 0.227458 -603
-1.026246 -2.477326 0.242412 -973
-1.028715 -2.474265 0.252411 -557
-1.027327 -2.475508 0.249938 517
-1.030588 -2.474377 0.295046 -346
-1.030926 -2.470860 0.270031 -431
-1.021871 -2.482157 0.232460 -792
-1.021687 -2.481498 0.319299 34
-1.003766 -2.500285 0.342052 344
-1.011460 -2.492175 0.216738 -943
-1.031952 -2.471110 0.275184 -928
-1.017247 -2.488452 0.329294 -676
-1.029331 -2.473772 0.295789 365
-1.025908 -2.476520 0.245698 500
-1.015190 -2.487931 0.224193 530
-1.017589 -2.484868 0.325491 541
-1.030772 -2.472815 0.284659 516
-1.027808 -2.476666 0.306245 -558
-1.014704 -2.488947 0.331820 -508
-1.012042 -2.491382 0.218383 -924
-1.017353 -2.486680 0.328236 -750
-1.002541 -2.501753 0.209510 -587
-1.024667 -2.479877 0.315865 -725
-1.025466 -2.477446 0.242375 -155
-1.027074 -2.476942 0.244936 -631
-1.004399 -2.499564 0.211956 611
-1.028300 -2.473268 0.255719 498
-1.000336 -2.503045 0.209540 932
-1.010788 -2.494991 0.335756 574
-1.000865 -2.502084 0.208653 -736
-1.028755 -2.476789 0.303744 -586
-0.930267 -2.573240 0.244730 -735
-0.945581 -2.557617 0.218026 -317
-0.984406 -2.518147 0.202501 -301
-0.987744 -2.515001 0.202369 -536
-0.940415 -2.563461 0.224341 -693
-0.971890 -2.530612 0.202184 -693
-1.031095 -2.473631 0.289008 -18
-0.991712 -2.511187 0.204783 353
-1.007855 -2.496829 0.340126 -604
-0.928907 -2.574313 0.253451 524
-0.941744 -2.562108 0.222574 -546
-1.020905 -2.481860 0.233251 438
-0.925686 -2.578264 0.281497 -621
-0.931590 -2.571873 0.308042 761
-0.978163 -2.525544 0.201979 -372
-0.925341 -2.577350 0.277924 -549
-0.974445 -2.530105 0.201359 -1049
-0.927524 -2.575508 0.258736 141
-0.926876 -2.576565 0.287469 587
-0.931588 -2.571868 0.309784 338
-0.953464 -2.549380 0.341222 303
-1.022806 -2.479816 0.317478 -35
-0.966572 -2.535769 0.204110 -35
-0.926940 -2.576646 0.288367 508
-0.930294 -2.573049 0.307245 -626
-1.031298 -2.471710 0.268430 -527
-0.939005 -2.564559 0.227002 -527
-0.926625 -2.575832 0.258732 -673
-1.030429 -2.472024 0.265026 18
-0.927205 -2.574669 0.256050 -577
-0.956238 -2.547057 0.208937 -237
-0.997458 -2.505019 0.207040 87
-1.010020 -2.493169 0.216772 92
-1.030188 -2.473406 0.292367 92
-0.926772 -2.576238 0.262250 -17
-0.931646 -2.571945 0.310666 -17
-0.983256 -2.519890 0.201736 -1023
-1.012728 -2.490823 0.219217 -714
-0.976592 -2.528549 0.351077 -267
-1.014303 -2.490224 0.332806 -489
-0.991133 -2.514351 0.350024 -489
-1.008557 -2.496251 0.339243 -350
-1.023010 -2.480342 0.235750 -694
-0.926636 -2.575873 0.294368 -572
-0.972744 -2.530421 0.203034 401
-0.991058 -2.511853 0.348872 -19
-0.930796 -2.571956 0.245518 392
-0.994230 -2.508395 0.346865 766
-0.979746 -2.522549 0.200974 -1045
-0.994426 -2.511131 0.348953 -1045
-0.935960 -2.566300 0.231369 -402
-0.942038 -2.560456 0.221563 -486
-1.011430 -2.492113 0.217592 -238
-1.010736 -2.492674 0.334631 668
-0.947537 -2.555548 0.217058 668
-1.016973 -2.487857 0.328364 -42
-1.014005 -2.489439 0.331823 175
-1.028075 -2.475121 0.300994 493
-1.010572 -2.492257 0.217560 356
-1.031095 -2.471243 0.273469 -152
-0.954297 -2.549138 0.209875 -264
-1.030922 -2.473258 0.283877 571
-0.935477 -2.567459 0.234020 171
-0.992274 -2.510352 0.204727 171
-0.928824 -2.574073 0.249967 -500
-0.934406 -2.569497 0.317484 -500
-0.994698 -2.507208 0.206276 204
-0.994726 -2.507267 0.205420 204
-0.943106 -2.560873 0.221629 204
-1.025077 -2.478703 0.312310 251
-0.934933 -2.568190 0.318242 -183
-0.945339 -2.559460 0.219001 -343
-0.931788 -2.572395 0.311588 -453
-0.954066 -2.548544 0.210696 394
-0.930129 -2.572606 0.304607 394
-1.007445 -2.495792 0.215190 525
-0.991481 -2.512915 0.204878 525
-1.016807 -2.487420 0.327465 483
-1.029116 -2.473242 0.294007 528
-1.030112 -2.471285 0.292995 -834
-1.023040 -2.482577 0.319495 -759
-0.940383 -2.563397 0.327504 -116
-0.949961 -2.554665 0.339077 -116
-0.978716 -2.522270 0.201758 -212
-0.986212 -2.515808 0.202367 -376
-1.001072 -2.504887 0.345058 -659
-0.937473 -2.565373 0.228739 -917
-0.939384 -2.563156 0.225157 -804
-0.991802 -2.511426 0.203928 -506
-0.931561 -2.573996 0.309150 -506
-0.942587 -2.559416 0.331470 -705
-0.938884 -2.564275 0.226107 -1002
-0.957477 -2.545478 0.345295 -504
-1.002201 -2.500883 0.343775 -398
-1.017568 -2.487218 0.225900 -474
-0.999252 -2.504884 0.345846 -674
-1.026403 -2.479689 0.313330 -1033
-0.982900 -2.521321 0.200974 -1033
-1.031749 -2.472791 0.281304 -135
-0.941246 -2.563231 0.223486 -667
-1.018232 -2.484198 0.325429 36
-1.032373 -2.472119 0.281276 -1007
-1.009108 -2.495397 0.214367 -1026
-0.935055 -2.568561 0.316536 661
-1.032455 -2.472305 0.282986 -1123
-0.952373 -2.551340 0.211702 -170
-0.968566 -2.533778 0.350469 -863
-0.931555 -2.573993 0.310882 -1148
-0.993495 -2.508779 0.205484 637
-0.996221 -2.506499 0.345883 637
-0.954368 -2.549304 0.343859 -1421
-1.018587 -2.485054 0.229168 487
-0.969959 -2.532710 0.203132 487
-0.926985 -2.576854 0.293600 -415
-1.029829 -2.472576 0.258253 -541
-1.005495 -2.499998 0.342100 -695
-0.953679 -2.549977 0.209932 -695
-0.925392 -2.577468 0.282289 -695
-0.982121 -2.521622 0.351353 -773
-0.943858 -2.557916 0.333106 -206
-1.022448 -2.481351 0.234100 -445
-0.931977 -2.572905 0.243894 130
-0.946232 -2.556927 0.333964 687
-0.956269 -2.547118 0.208049 -951
-0.930295 -2.573052 0.305507 114
-0.947327 -2.554959 0.215283 -515
-0.939447 -2.563339 0.327446 -754
-1.001944 -2.502499 0.344828 -747
-1.006181 -2.497206 0.211852 -747
-0.925910 -2.576121 0.290891 -747
-1.027656 -2.476321 0.304497 22
-0.990090 -2.511760 0.203070 -1106
-0.996155 -2.506289 0.205411 -1106
-1.026544 -2.477792 0.311426 -1173
-1.027831 -2.474512 0.251559 244
-0.943447 -2.559328 0.221525 244
-0.955579 -2.547725 0.344583 -859
-0.996197 -2.508728 0.205581 -915
-0.984582 -2.516240 0.202369 -191
-0.984036 -2.519537 0.352064 -1037
-0.927883 -2.576541 0.297071 -380
-0.964385 -2.539571 0.348361 -344
-0.962477 -2.541827 0.347684 -323
-0.959711 -2.544117 0.346094 -362
-0.973274 -2.529469 0.202133 -311
-1.030712 -2.472670 0.291475 -423
-0.986185 -2.518003 0.351111 -760
-1.031358 -2.471865 0.287167 -706
-0.988613 -2.514933 0.349999 -582
-1.023564 -2.479409 0.316591 -371
-0.978259 -2.525760 0.351672 -305
-1.006849 -2.496588 0.213531 -329
-0.984865 -2.519333 0.351209 -340
-1.003032 -2.500666 0.342932 4
-1.025528 -2.477543 0.243232 248
-1.004770 -2.498184 0.211890 228
-1.020195 -2.482309 0.231567 228
-0.939095 -2.564804 0.324978 228
-0.927633 -2.575785 0.259642 361
-0.925817 -2.575873 0.278694 361
-1.028319 -2.475739 0.301919 172
-0.935351 -2.566816 0.319855 -396
-0.996256 -2.506589 0.206280 -270
-0.939440 -2.563261 0.226040 -247
-0.992206 -2.512416 0.348998 -247
-1.020026 -2.484089 0.323810 -368
-0.927110 -2.574418 0.256869 -368
-1.024571 -2.479615 0.314968 -265
-0.926211 -2.576970 0.282286 239
-1.019547 -2.483018 0.229034 -775
-1.015919 -2.487448 0.330001 -653
-0.930062 -2.572626 0.245548 -407
-0.932614 -2.571884 0.313329 -509
-0.961891 -2.540259 0.205999 345
-0.987442 -2.514234 0.203158 345
-1.026402 -2.477450 0.307984 470
-0.967457 -2.535705 0.203254 -517
-0.978835 -2.524944 0.201095 -1103
-1.031622 -2.472487 0.289797 -1117
-1.021243 -2.482690 0.321131 -195
-0.983752 -2.518811 0.202526 -195
-0.932998 -2.570433 0.314035 -195
-1.030535 -2.472278 0.264186 -129
-0.990579 -2.515263 0.350980 -1035
-0.987002 -2.515450 0.350833 -1044
-0.928741 -2.573781 0.249084 -793
-0.936242 -2.567083 0.321658 -793
-0.943585 -2.559632 0.333283 -793
-1.032427 -2.472217 0.272778 -1058
-0.925317 -2.577284 0.270964 -677
-0.925695 -2.578287 0.273681 -516
-1.013234 -2.492067 0.334686 -520
-0.981208 -2.524007 0.351598 -520
-0.963801 -2.538044 0.204196 -374
-0.933907 -2.570391 0.316681 -776
-1.025009 -2.478496 0.239911 -701
-1.021420 -2.483121 0.322056 -701
-1.020082 -2.482024 0.230686 -339
-0.979019 -2.525396 0.180604 62
-0.988916 -2.513382 0.203989 62
-0.941797 -2.562218 0.223420 62
-0.926303 -2.577154 0.284024 103
-0.961503 -2.541591 0.347595 -462
-0.935408 -2.567235 0.232273 -680
-1.023749 -2.479876 0.237438 -530
-1.030618 -2.474470 0.295898 -530
-0.925576 -2.578017 0.272794 -530
-1.031685 -2.472626 0.282986 -225
-0.932003 -2.572976 0.243041 -225
-0.926845 -2.576393 0.290927 119
-0.935642 -2.567625 0.319067 119
-1.007564 -2.496095 0.213504 -816
-1.029566 -2.474356 0.254155 -816
-0.993845 -2.511971 0.349027 -755
-0.949030 -2.554608 0.339022 -595
-0.933322 -2.568815 0.236665 -596
-0.985017 -2.517363 0.201612 -1062
-0.925596 -2.575222 0.260374 -1062
-0.958084 -2.544675 0.207091 -400
-0.990299 -2.512223 0.203962 -282
-0.941210 -2.563169 0.224345 -74
-0.955414 -2.547297 0.209785 10
-0.929335 -2.575415 0.303987 -854
-0.980800 -2.522955 0.201026 -1094
-1.003743 -2.500174 0.210296 -470
-0.925562 -2.575141 0.291651 -889
-0.964536 -2.537562 0.204173 -125
-1.031013 -2.473402 0.263460 -269
-0.926038 -2.576502 0.262250 -845
-0.953357 -2.551528 0.342336 -845
-0.944087 -2.558525 0.334069 -845
-0.970627 -2.534409 0.350627 -685
-0.933767 -2.567799 0.234876 -699
-0.963067 -2.538527 0.204194 -699
-0.940348 -2.563301 0.328358 -699
-1.030463 -2.474120 0.294149 -205
-1.008791 -2.494634 0.215133 -298
-0.998261 -2.504699 0.207040 -298
-1.022714 -2.481795 0.318542 -256
-0.930655 -2.571565 0.243742 -256
-1.008260 -2.495537 0.214328 -563
-1.024178 -2.478716 0.239051 -377
-0.947580 -2.558110 0.336762 -639
-0.952732 -2.549855 0.210759 -416
-0.972500 -2.532153 0.351322 -416
-1.004650 -2.497895 0.210997 -568
-1.031329 -2.471772 0.286280 -568
-0.925421 -2.577537 0.279693 -559
-0.943347 -2.559033 0.220657 -390
-0.929714 -2.573966 0.304726 -390
-1.017765 -2.485298 0.326413 133
-1.008634 -2.494215 0.215945 382
-1.025698 -2.477943 0.309699 382
-0.934793 -2.567831 0.234905 -12
-1.027916 -2.474768 0.250733 -2
-1.029882 -2.472672 0.259106 -325
-0.925683 -2.575476 0.286466 -171
-1.031538 -2.472232 0.277846 -120
-0.982601 -2.520553 0.201764 -120
-0.926325 -2.577251 0.284917 20
-0.928079 -2.574760 0.256074 218
-0.938170 -2.564838 0.229591 261
-1.026692 -2.475988 0.245696 -252
-0.941120 -2.562924 0.225193 478
-0.971329 -2.531507 0.201357 -817
-1.013727 -2.489035 0.220836 -543
-0.928967 -2.574408 0.254338 654
-0.943614 -2.559733 0.332425 -173
-0.950931 -2.552414 0.212620 -485
-0.962045 -2.540676 0.205185 -485
-0.959440 -2.543420 0.206182 -472
-0.992638 -2.511230 0.348868 -472
-0.998748 -2.503684 0.207005 -613
-0.937951 -2.564213 0.324881 -455
-1.017238 -2.483989 0.226505 -561
-1.027699 -2.474206 0.248977 -561
-0.956476 -2.545212 0.207922 -561
-1.024621 -2.477548 0.240662 -266
-1.004371 -2.499442 0.211102 -161
-0.980743 -2.520461 0.201695 -161
-0.952642 -2.549615 0.211592 263
-0.951048 -2.552705 0.213502 278
-0.935025 -2.568467 0.317388 278
-0.971468 -2.531857 0.350367 278
-0.941952 -2.560209 0.222427 90
-1.008317 -2.495645 0.215210 163
-1.026438 -2.477535 0.308845 163
-0.950871 -2.552193 0.339699 163
-0.945726 -2.558009 0.334950 -357
-0.931948 -2.572875 0.242164 -570
-1.018679 -2.485299 0.228343 1
-1.031575 -2.472395 0.266790 -658
-0.935016 -2.568456 0.319146 -658
-1.019286 -2.482351 0.230686 268
-0.961534 -2.541695 0.346749 364
-0.954506 -2.547232 0.209752 -429
-0.960648 -2.541745 0.206083 -519
-1.007478 -2.495852 0.214336 -69
-1.030302 -2.473670 0.293248 -69
-0.942477 -2.559163 0.330570 -69
-0.989196 -2.514094 0.349921 -69
-1.026899 -2.476529 0.307041 -45
-0.954257 -2.549056 0.342955 -45
-0.954284 -2.549162 0.342094 -45
-0.970778 -2.532396 0.203132 672
-1.005914 -2.496555 0.213501 663
-0.998291 -2.504819 0.207927 546
-0.932118 -2.570564 0.310541 683
-0.946457 -2.557570 0.217171 -363
-1.029551 -2.474300 0.297550 -47
-0.929672 -2.573850 0.249111 -47
-0.992850 -2.509511 0.204684 9
-0.937214 -2.564698 0.323172 8
-1.016629 -2.486985 0.225864 667
-1.030718 -2.472738 0.285518 441
-0.926354 -2.575114 0.264746 441
-0.928434 -2.575735 0.297034 441
-0.999903 -2.504246 0.344077 441
-1.029214 -2.473510 0.294904 453
-1.028975 -2.474849 0.298436 453
-0.927498 -2.575459 0.293486 453
-0.934760 -2.567764 0.235760 407
-0.964216 -2.539147 0.347422 462
-0.996251 -2.506521 0.207129 577
-1.032342 -2.472024 0.280389 -953
-0.964798 -2.538286 0.349086 -953
-1.025225 -2.479040 0.314092 -620
-1.017238 -2.486454 0.226689 153
-1.030401 -2.471945 0.265881 153
-1.019683 -2.483316 0.322851 123
-0.926482 -2.575360 0.263891 265
-1.019053 -2.483963 0.229955 357
-0.967307 -2.535286 0.204079 357
-0.925991 -2.576308 0.277859 357
-0.942208 -2.560894 0.329026 562
-0.967452 -2.535657 0.348887 562
-0.927818 -2.576359 0.295315 121
-0.963681 -2.540159 0.347527 312
-0.950148 -2.552462 0.339703 -318
-0.976709 -2.526476 0.350832 -318
-1.031013 -2.473383 0.269417 325
-0.972789 -2.530539 0.350269 484
-0.929858 -2.572132 0.247226 215
-0.984710 -2.518904 0.350273 477
-1.029058 -2.475123 0.299325 285
-0.928941 -2.574385 0.252598 308
-0.974210 -2.529517 0.202149 -202
-0.926146 -2.576741 0.267462 -202
-0.994053 -2.510178 0.347937 -202
-0.980494 -2.524487 0.351623 -510
-1.017416 -2.484456 0.227397 73
-1.029377 -2.473880 0.257505 243
-1.007768 -2.496569 0.339247 170
-1.009810 -2.494865 0.336548 457
-0.930032 -2.572591 0.248151 457
-0.976685 -2.526402 0.349951 457
-1.012492 -2.490230 0.220013 -13
-1.010670 -2.494721 0.336576 -27
-0.973335 -2.529582 0.202984 560
-0.925928 -2.576145 0.279577 399
-0.952431 -2.551497 0.340551 319
-0.977310 -2.525669 0.201981 351
-0.962338 -2.541392 0.346740 443
-1.012608 -2.490517 0.220897 531
-1.026704 -2.475997 0.305272 531
-0.978151 -2.525514 0.350775 531
-0.965982 -2.536605 0.204145 -291
-1.010648 -2.492392 0.335454 16
-0.979385 -2.524029 0.180524 16
-0.932358 -2.571190 0.241177 -62
-1.018468 -2.484806 0.326386 -496
-0.958850 -2.544316 0.207946 643
-0.932654 -2.569748 0.240208 305
-1.002086 -2.500639 0.342871 362
-0.964476 -2.537426 0.347253 585
-1.030470 -2.472100 0.271823 523
-0.977798 -2.526985 0.350078 448
-0.977762 -2.526880 0.350930 448
-0.943828 -2.557834 0.332241 363
-1.023716 -2.479765 0.314938 474
-0.943354 -2.559041 0.330601 757
-1.031041 -2.473511 0.283050 629
-0.946845 -2.556138 0.217930 684
-1.013352 -2.490112 0.331882 698
-0.982462 -2.520131 0.202587 714
-1.030853 -2.470652 0.275949 -99
-0.938147 -2.564797 0.227857 -697
-0.925125 -2.576712 0.277002 -491
-0.935021 -2.568432 0.234102 -478
-0.925239 -2.577067 0.267466 -1015
-0.974569 -2.528019 0.201214 -921
-0.941905 -2.562510 0.330064 -687
-0.997905 -2.506121 0.346768 -687
-1.030713 -2.472705 0.271062 430
-1.016011 -2.487728 0.329175 -43
-0.999519 -2.503308 0.207829 -28
-0.951383 -2.551161 0.213386 669
-0.985540 -2.516410 0.203254 669
-0.928259 -2.575296 0.296086 669
-0.933021 -2.570518 0.314937 -665
-1.012898 -2.489038 0.219943 -690
-0.979658 -2.522312 0.201795 -188
-1.000282 -2.502932 0.208685 424
-1.015069 -2.487647 0.223300 60
-0.948588 -2.555693 0.338263 -1019
-0.931324 -2.573379 0.308196 -169
-1.000833 -2.502027 0.209481 122
-1.021234 -2.480619 0.233992 225
-0.941875 -2.562430 0.329178 -36
-0.936748 -2.565892 0.321531 -36
-0.941004 -2.562548 0.329155 -594
-0.960410 -2.543536 0.346913 -123
-0.932275 -2.570938 0.242004 293
-0.954738 -2.547886 0.210670 293
-1.016228 -2.485993 0.224927 161
-1.031032 -2.471083 0.275145 -65
-0.991508 -2.512974 0.204028 -303
-1.019649 -2.483234 0.321988 529
-0.933794 -2.570141 0.314060 529
-1.009600 -2.494314 0.338186 -843
-0.955897 -2.546102 0.343556 207
-1.022990 -2.480249 0.318369 -575
-0.925090 -2.576602 0.287414 -1086
-0.947287 -2.557320 0.335804 111
-0.926836 -2.576391 0.260511 -259
-1.010548 -2.494451 0.337403 -738
-1.019436 -2.484929 0.325587 -647
-0.948854 -2.554181 0.338098 125
-0.961006 -2.542703 0.346849 125
-1.021152 -2.482426 0.320250 253
-0.970035 -2.535238 0.180152 -168
-1.015855 -2.487292 0.328240 461
-0.948528 -2.555731 0.215369 75
-0.953590 -2.549738 0.210761 25
-1.004356 -2.499436 0.341984 -78
-0.925178 -2.576908 0.269201 -885
-0.935298 -2.569218 0.233315 -914
-0.939482 -2.563434 0.326599 -187
-0.970886 -2.532689 0.350428 -551
-0.994963 -2.510224 0.347994 -551
-0.951015 -2.552629 0.340643 -634
-0.974291 -2.529727 0.351958 -1121
-0.926491 -2.575422 0.295196 -742
-1.030680 -2.472656 0.286369 316
-0.926245 -2.577065 0.283171 159
-0.982268 -2.519655 0.350240 115
-0.927785 -2.576269 0.296197 -124
-0.933288 -2.568746 0.237549 -177
-0.989978 -2.513781 0.204055 -181
-1.017946 -2.485729 0.327307 -383
-0.988260 -2.516294 0.350122 -383
-1.019321 -2.482415 0.229841 -217
-1.005696 -2.498194 0.341057 -544
-1.018960 -2.483748 0.228214 -751
-0.925353 -2.577385 0.283171 -751
-0.925251 -2.577053 0.275294 -499
-1.031635 -2.472537 0.282131 -153
-1.005474 -2.497697 0.211859 -214
-1.027692 -2.476408 0.305358 -214
-0.937383 -2.565125 0.229595 -459
-0.952335 -2.551216 0.341393 -459
-1.020332 -2.482643 0.322785 -494
-1.021925 -2.482108 0.320254 -451
-0.953368 -2.549100 0.342047 -451
-1.026722 -2.478233 0.310634 -772
-1.027249 -2.477300 0.309699 -1167
-0.936896 -2.566333 0.322477 -615
-1.032299 -2.471898 0.276133 -955
-0.929566 -2.573532 0.246464 -918
-0.971824 -2.532820 0.351351 -1331
-0.980975 -2.523405 0.350644 284
-0.946363 -2.557328 0.218026 279
-0.998809 -2.503795 0.207856 279
-0.933819 -2.567906 0.315549 371
-0.925969 -2.576261 0.272651 398
-0.963242 -2.539001 0.205111 178
-0.969314 -2.533367 0.203136 282
-0.990968 -2.513921 0.349124 322
-0.947562 -2.555605 0.335601 522
-0.944519 -2.559743 0.221599 566
-0.945019 -2.558620 0.220656 589
-0.938151 -2.564761 0.323196 507
-1.030063 -2.473148 0.291475 273
-0.965525 -2.537795 0.204224 290
-1.024653 -2.477657 0.241526 162
-1.014687 -2.488905 0.222538 142
-1.030340 -2.471789 0.267558 266
-0.940529 -2.563747 0.225256 -96
-1.011465 -2.492175 0.334599 149
-1.028588 -2.473939 0.254087 77
-0.927696 -2.573770 0.255123 77
-0.968453 -2.533491 0.203134 -9
-1.030740 -2.472759 0.290620 -258
-0.930386 -2.573317 0.306430 -258
-0.974733 -2.528456 0.350979 -258
-0.929562 -2.573568 0.248228 -355
-0.957110 -2.546945 0.344583 -88
-0.932539 -2.569467 0.239294 -118
-1.017603 -2.487303 0.327464 -148
-0.957533 -2.545626 0.207992 -148
-1.006586 -2.498158 0.340213 -284
-1.004022 -2.500879 0.343012 -488
-0.954364 -2.546878 0.343584 -529
-1.015895 -2.485179 0.224003 -495
-0.929240 -2.572726 0.306304 -986
-0.952252 -2.553470 0.341641 -919
-1.026690 -2.478146 0.309776 -278
-0.939033 -2.564719 0.325829 -278
-0.936365 -2.567350 0.320801 -278
-0.986652 -2.514613 0.202304 -430
-0.955921 -2.546179 0.344440 -545
-0.996781 -2.507875 0.347795 -758
-0.962687 -2.539891 0.204292 -1025
-1.031310 -2.471749 0.264168 -1079
-1.030441 -2.472074 0.293949 -999
-1.032557 -2.472517 0.277066 -962
-0.928197 -2.577338 0.299780 -1059
-0.928806 -2.576815 0.302377 -1059
-0.932378 -2.571269 0.312374 -77
-1.030748 -2.472840 0.260007 -1052
-0.965868 -2.536261 0.348883 200
-0.961615 -2.541921 0.206973 625
-0.970396 -2.533806 0.349672 190
-0.978594 -2.524356 0.201916 -232
-0.926206 -2.576943 0.269231 -39
-0.965274 -2.537145 0.203317 -1255
-0.929747 -2.574056 0.303869 -71
-1.027784 -2.476681 0.302828 503
-0.928354 -2.575572 0.250954 -1016
-1.031209 -2.471527 0.288816 -991
-1.032179 -2.471611 0.273562 -980
-0.933400 -2.569031 0.238430 205
-0.925384 -2.577484 0.284024 -795
-1.028581 -2.476350 0.302828 -234
-0.944819 -2.558053 0.334050 -234
-1.029172 -2.473378 0.259158 579
-0.947858 -2.556390 0.336587 -117
-0.933432 -2.569143 0.239294 536
-0.928062 -2.574701 0.252603 -550
-0.926237 -2.577043 0.270119 58
-1.012850 -2.491111 0.333703 113
-0.971094 -2.530917 0.202184 113
-1.024302 -2.478996 0.239908 93
-0.988214 -2.513930 0.203166 93
-1.031388 -2.471947 0.265894 -779
-0.986004 -2.517586 0.350167 136
-1.026812 -2.476257 0.306175 292
-1.029814 -2.472549 0.262511 304
-0.928407 -2.575646 0.297887 192
-1.012387 -2.492208 0.334659 214
-0.926499 -2.575492 0.266502 556
-0.979409 -2.524011 0.350656 556
-0.967727 -2.533973 0.203136 -241
-0.936877 -2.566247 0.230510 -143
-1.023568 -2.479460 0.238233 -38
-0.926795 -2.576316 0.261392 -111
-0.948678 -2.553648 0.215211 -66
-0.952990 -2.550568 0.341337 -66
-0.998023 -2.506393 0.345955 98
-0.945187 -2.559038 0.219820 220
-0.954340 -2.546801 0.342705 220
-0.988534 -2.514676 0.349100 220
-1.015272 -2.488121 0.330048 5
-1.001844 -2.502248 0.343932 53
-0.928968 -2.574459 0.251742 53
-0.937982 -2.564309 0.324027 53
-0.975193 -2.527303 0.202034 145
-1.008668 -2.496526 0.338416 339
-0.931563 -2.571776 0.308927 583
-0.934113 -2.568728 0.236698 208
-0.960617 -2.541687 0.206938 324
-0.967074 -2.537016 0.349033 464
-0.995892 -2.507937 0.346909 464
-1.013434 -2.490312 0.221751 450
-0.955532 -2.547588 0.210670 593
-1.030712 -2.472765 0.260862 -881
-1.027891 -2.474657 0.249881 -255
-0.925566 -2.575126 0.288151 -387
-0.926598 -2.575756 0.259577 -460
-1.031309 -2.471766 0.284603 -397
-0.980627 -2.522546 0.201857 -213
-0.973881 -2.528583 0.350946 -213
-0.975649 -2.528509 0.351020 -233
-0.925536 -2.575032 0.287266 -279
-0.973549 -2.530128 0.351122 -279
-1.031654 -2.472541 0.283841 -322
-0.979551 -2.524446 0.351582 -322
-1.005177 -2.499218 0.341157 99
-0.933765 -2.570048 0.314907 117
-1.009493 -2.494071 0.215976 -93
-0.927731 -2.573845 0.254242 -93
-1.025580 -2.477681 0.310524 66
-1.031216 -2.473881 0.288213 85
-0.986526 -2.516565 0.350097 85
-0.962717 -2.540002 0.348337 -780
-0.927167 -2.577288 0.292796 -276
-0.950062 -2.552464 0.213453 -287
-0.970801 -2.532433 0.349542 323
-1.029196 -2.473457 0.258300 435
-0.926818 -2.576391 0.289213 422
-1.031018 -2.473446 0.287301 186
-1.013331 -2.490007 0.332736 184
-0.981887 -2.521020 0.350399 116
-1.015538 -2.488720 0.330970 -598
-1.012411 -2.492290 0.335516 -482
-1.008811 -2.494630 0.338210 -240
-0.992620 -2.511151 0.347998 369
-0.926192 -2.576916 0.275321 385
-0.972264 -2.531551 0.350367 405
-0.926129 -2.576692 0.281373 335
-0.981635 -2.520385 0.200875 -992
-0.925180 -2.576865 0.286593 -992
-1.028918 -2.474764 0.250761 -1155
-0.999079 -2.504461 0.344905 109
-1.030910 -2.475172 0.297698 -995
-1.006757 -2.498583 0.341153 -995
-0.968592 -2.535999 0.350713 -995
-1.023659 -2.479679 0.315794 78
-0.926158 -2.576774 0.280528 403
-1.026491 -2.475493 0.247348 426
-0.943530 -2.559470 0.331533 377
-0.932297 -2.570999 0.311475 334
-0.940982 -2.562464 0.328282 50
-1.022416 -2.481284 0.234952 70
-0.937350 -2.565061 0.230446 70
-1.024190 -2.478755 0.240739 466
-0.992181 -2.512342 0.348116 463
-1.030366 -2.471871 0.266699 234
-1.024515 -2.479542 0.314086 234
-0.946814 -2.556018 0.217077 234
-0.929506 -2.573439 0.302916 246
-0.939540 -2.563521 0.325749 355
-1.021402 -2.481039 0.233198 -271
-0.964501 -2.537506 0.348102 -103
-1.022838 -2.479912 0.316622 414
-0.926085 -2.576559 0.290066 -606
-0.926025 -2.576464 0.274386 393
-0.933967 -2.568351 0.316478 -46
-1.028539 -2.473874 0.254922 298
-1.014529 -2.488519 0.330896 97
-0.983704 -2.521005 0.351353 0
-0.934028 -2.568433 0.235813 -230
-1.020449 -2.482906 0.321988 46
-1.031612 -2.472422 0.279571 -37
-0.928697 -2.573731 0.301177 -37
-1.000284 -2.505201 0.345062 -272
-0.927967 -2.574449 0.253450 -308
-0.926254 -2.577113 0.277078 375
-0.945337 -2.557029 0.218809 286
-1.030947 -2.473318 0.270272 360
-0.936396 -2.567446 0.319945 235
-0.956717 -2.545864 0.208836 177
-1.028877 -2.474687 0.300110 76
-0.926627 -2.575800 0.263058 86
-0.995834 -2.507781 0.206337 -29
-1.029585 -2.474392 0.298403 -283
-0.958829 -2.544249 0.346058 -636
-0.962717 -2.540015 0.205148 -199
-0.993639 -2.509199 0.204680 -199
-0.932304 -2.571088 0.240296 -477
-1.030861 -2.470704 0.271707 -320
-0.961089 -2.542960 0.347753 -700
-0.935817 -2.565872 0.232176 55
-0.995548 -2.509383 0.347909 -851
-0.989031 -2.513609 0.203162 -836
-0.978136 -2.525486 0.202831 518
-0.928752 -2.573811 0.300321 222
-0.930709 -2.571666 0.244623 84
-0.940353 -2.563316 0.326618 395
-1.030173 -2.473401 0.260899 -34
-0.946340 -2.557268 0.335745 -450
-1.031539 -2.472318 0.267644 -585
-0.949700 -2.554020 0.213541 -861
-0.999106 -2.506864 0.346913 -1053
-0.968399 -2.533375 0.202279 -892
-0.929478 -2.573347 0.305507 -689
-0.942259 -2.561056 0.330801 -689
-0.929528 -2.573461 0.247350 -650
-1.029986 -2.472953 0.259977 -162
-1.015640 -2.486799 0.223249 -560
-1.027988 -2.477101 0.307170 -942
-0.944988 -2.558487 0.334949 -888
-0.948417 -2.553004 0.214310 -767
-0.929098 -2.574796 0.303042 -578
-0.947968 -2.556641 0.337488 -846
-0.936844 -2.566179 0.231394 315
-0.998481 -2.505295 0.206239 -1118
-1.028623 -2.474012 0.253236 -220
-1.030920 -2.470792 0.272564 -229
-0.964505 -2.537505 0.205027 615
-0.972881 -2.530790 0.351175 -346
-1.024430 -2.479273 0.313206 674
-0.975786 -2.526463 0.201979 276
-0.974538 -2.527963 0.202066 -55
-1.019169 -2.484237 0.323779 423
-0.996467 -2.507097 0.346836 39
-1.030056 -2.473070 0.256592 -979
-1.030654 -2.472594 0.268499 294
-1.032432 -2.472269 0.277893 -934
-0.974905 -2.528880 0.351897 -1133
-0.931963 -2.572830 0.312521 -862
-0.994517 -2.506806 0.204528 -1359
-1.019407 -2.484849 0.324703 -81
-0.929823 -2.572023 0.246373 -81
-0.981758 -2.520679 0.201730 -81
-0.968361 -2.535394 0.349770 -81
-1.032183 -2.471662 0.278669 -900
-0.993153 -2.510277 0.203905 -874
-1.010673 -2.492475 0.336303 -730
-0.959881 -2.542170 0.206940 -75
-0.926030 -2.576455 0.285704 -75
-0.949707 -2.553946 0.214395 -186
-0.975075 -2.527009 0.201149 -781
-0.926304 -2.577241 0.264047 -588
-0.924970 -2.576268 0.268249 -959
-1.031040 -2.473478 0.262637 -454
-0.928165 -2.575047 0.256966 379
-0.951171 -2.550571 0.211613 -733
-0.927666 -2.575914 0.297879 -630
-0.975561 -2.528224 0.351832 -1110
-0.984280 -2.517858 0.201602 -1122
-1.031845 -2.473052 0.280493 -94
-0.927524 -2.575532 0.254403 -901
-0.936216 -2.567012 0.319027 650
-1.029735 -2.474741 0.300152 -794
-0.965200 -2.536917 0.348956 -26
-0.965239 -2.537019 0.348107 -26
-1.027754 -2.476589 0.303683 221
-0.935842 -2.565986 0.233064 429
-0.997167 -2.506529 0.345943 429
-0.930886 -2.572167 0.242952 -612
-0.953257 -2.548826 0.342871 -1183
-0.950328 -2.552911 0.338905 388
-1.029469 -2.474134 0.256693 6
-0.939584 -2.563666 0.227785 610
-0.926201 -2.576966 0.270972 185
-0.971800 -2.530376 0.203006 274
-0.945612 -2.557761 0.334037 274
-0.926115 -2.576704 0.271823 314
-0.958747 -2.544020 0.207042 -22
-0.935993 -2.566367 0.230498 -858
-1.025749 -2.478121 0.311426 -290
-0.948439 -2.555255 0.337343 -290
-0.932389 -2.568994 0.238401 -552
-0.988142 -2.516050 0.349243 437
-0.978733 -2.524679 0.350705 596
-0.959764 -2.544246 0.207093 320
-0.983798 -2.518939 0.351099 -158
-0.980317 -2.524065 0.350705 342
-1.031552 -2.472339 0.278684 -54
-0.928942 -2.574351 0.250859 -211
-0.990285 -2.514483 0.349995 -211
-0.958687 -2.543812 0.345131 203
-1.007532 -2.495965 0.338293 712
-1.005445 -2.497636 0.212714 459
-0.963775 -2.537987 0.205030 459
-0.925940 -2.576181 0.273508 417
-0.930919 -2.572234 0.246404 642
-0.958423 -2.545528 0.345335 -208
-0.930830 -2.572049 0.307160 179
-1.011948 -2.491139 0.219238 -253
-1.029613 -2.474480 0.299291 -540
-1.026161 -2.479074 0.312406 -661
-0.934699 -2.570292 0.318458 -924
-0.994405 -2.508827 0.205513 455
-0.959631 -2.543859 0.345191 455
-1.029438 -2.474029 0.255827 -273
-0.926094 -2.576646 0.266603 -273
-1.031049 -2.471093 0.276854 -137
-0.952041 -2.552856 0.340685 -137
-1.030767 -2.472844 0.289797 -139
-1.025195 -2.478957 0.313206 -139
-0.997400 -2.507136 0.346865 -304
-0.938265 -2.565083 0.228735 -203
-0.985567 -2.516469 0.202396 -203
-0.971008 -2.530680 0.203006 875
-0.928171 -2.575027 0.298686 -50
-1.021042 -2.482170 0.319368 591
-0.933792 -2.570133 0.315794 -349
-0.935383 -2.567166 0.233132 -254
-0.970934 -2.532814 0.202283 -174
-0.982952 -2.519124 0.202522 -151
-0.927343 -2.575054 0.257822 -109
-0.967308 -2.537618 0.349989 -394
-0.935650 -2.567923 0.234937 539
-0.986076 -2.515383 0.203201 539
-0.939092 -2.564856 0.227888 -30
-1.009695 -2.494591 0.337391 -132
-0.955319 -2.546997 0.208896 -725
-0.925716 -2.578346 0.280648 -569
-0.925285 -2.577206 0.271821 -587
-0.944308 -2.559158 0.219821 -435
-0.959948 -2.544721 0.347042 -1162
-0.926219 -2.576955 0.263153 -732
-1.027135 -2.475056 0.249034 288
-0.996810 -2.505684 0.207093 288
-0.928143 -2.574938 0.299539 -293
-0.967202 -2.535025 0.349684 -317
-0.964060 -2.541110 0.348539 -546
-0.985527 -2.518668 0.351156 -538
-0.961713 -2.542156 0.206133 -97
-0.947238 -2.554719 0.216105 165
-1.029857 -2.472654 0.257398 -764
-0.991230 -2.512279 0.349779 -835
-0.982765 -2.520964 0.351312 -787
-1.021223 -2.482631 0.232461 21
-0.951351 -2.551042 0.212502 21
-1.031207 -2.471513 0.274358 -89
-0.955417 -2.547295 0.343655 -89
-1.028997 -2.474944 0.301004 -159
-0.966245 -2.534944 0.203189 -884
-0.969921 -2.534681 0.350615 -855
-0.995041 -2.508072 0.346881 656
-0.938740 -2.563908 0.326618 -831
-0.946966 -2.556440 0.216250 -417
-0.994643 -2.509415 0.204723 -417
-1.006730 -2.496262 0.340014 -160
-0.986981 -2.515374 0.349950 -160
-0.992172 -2.510052 0.203862 -715
-0.976744 -2.526567 0.201175 -555
-0.993403 -2.510843 0.347986 129
-1.030011 -2.472970 0.261685 118
-0.944280 -2.559095 0.220675 118
-0.986930 -2.515253 0.203203 482
-0.941707 -2.561973 0.224275 578
-0.954259 -2.549083 0.341222 578
-1.028725 -2.476697 0.304595 -868
-0.929638 -2.573779 0.249963 256
-0.946376 -2.557365 0.334907 256
-0.946421 -2.557438 0.218875 737
-0.928364 -2.575562 0.300500 -562
-0.968531 -2.533709 0.349571 48
-0.969803 -2.534439 0.349713 34
-0.937455 -2.565310 0.324104 -553
-0.969865 -2.532407 0.202251 -378
-0.965829 -2.536158 0.349741 -1357
-0.957335 -2.545043 0.344351 299
-0.928752 -2.573811 0.302063 -301
-0.998881 -2.506254 0.345988 -301
-0.925357 -2.577396 0.284910 -847
-0.950199 -2.555270 0.340033 -847
-1.029532 -2.474285 0.254982 -556
-0.983837 -2.519040 0.350260 588
-0.997126 -2.506447 0.206303 -586
-1.029515 -2.474212 0.296682 183
-1.005722 -2.498301 0.340197 183
-0.939470 -2.563378 0.226906 271
-0.977950 -2.524994 0.180553 146
-0.941826 -2.562355 0.328313 541
-0.973442 -2.529883 0.350220 587
-0.926418 -2.575207 0.265600 524
-0.937306 -2.564976 0.322319 524
-0.958140 -2.544788 0.207949 358
-0.976657 -2.526330 0.202001 358
-0.944794 -2.557972 0.333164 365
-0.926938 -2.576663 0.291845 -105
-0.962546 -2.539575 0.347422 68
-1.027716 -2.474267 0.252392 515
-0.927736 -2.576084 0.294409 329
-0.981501 -2.522387 0.350558 212
-0.926119 -2.576725 0.265746 -347
-0.926182 -2.576840 0.268346 -128
-0.942229 -2.560976 0.329920 -18
-0.949669 -2.553879 0.338094 471
-0.985415 -2.518426 0.350244 344
-0.926290 -2.577191 0.276225 387
-0.933028 -2.570526 0.313183 281
-0.960363 -2.543467 0.346046 580
-0.926883 -2.576475 0.290074 310
-0.939038 -2.564731 0.324104 574
